ply
format ascii 1.0
element vertex 1001
property float x
property float y
property float z
property uchar red
property uchar green
property uchar blue
end_header
0.79439 0.016159 -0.27191 255 255 255
0.938186 -0.302955 -1.23794 255 255 255
0.881766 -0.144284 -0.468773 255 255 255
0.861342 -0.101276 -0.404419 255 255 255
0.786177 0.0100946 -0.244783 255 255 255
0.807985 0.0107341 -0.288763 255 255 255
0.796819 -0.114752 -0.37392 255 255 255
0.929718 -0.333214 -1.17336 255 255 255
0.999206 -0.294016 -1.18537 255 255 255
1.03278 -0.057903 -1.13907 255 255 255
0.942949 -0.0598701 -1.13339 255 255 255
1.09135 -0.325984 -1.05774 255 255 255
1.08606 -0.218613 -0.843598 255 255 255
0.974927 0.0243573 -0.739955 255 255 255
1.08754 0.0365982 -1.05906 255 255 255
0.865084 -0.124902 -0.48353 255 255 255
0.797511 -0.0638889 -0.263103 255 255 255
0.858476 -0.0016697 -0.422416 255 255 255
0.873926 -0.0028206 -0.471707 255 255 255
0.87246 -0.0517604 -0.462112 255 255 255
0.786771 0.0276354 -1.04921 255 255 255
0.960166 -0.115405 -0.683561 255 255 255
0.845755 -0.143065 -0.392235 255 255 255
0.962131 -0.0758664 -0.675571 255 255 255
1.12247 -0.221909 -1.12379 255 255 255
1.09135 -0.325984 -1.05774 255 255 255
0.94721 -0.354283 -1.24198 255 255 255
0.911313 -0.0463004 -1.08884 255 255 255
1.04287 -0.00025538 -1.12974 255 255 255
0.979165 -0.219661 -1.23136 255 255 255
0.830393 -0.12122 -0.32123 255 255 255
0.874022 -0.130147 -0.475496 255 255 255
0.846536 -0.0944424 -0.395362 255 255 255
0.858103 -0.107014 -0.414212 255 255 255
0.96395 -0.292798 -1.19026 255 255 255
0.900537 -0.282545 -1.14589 255 255 255
0.872276 -0.0913518 -0.47751 255 255 255
0.853145 -0.0875822 -0.418786 255 255 255
0.819609 0.00754878 -1.00281 255 255 255
0.790999 -0.0866238 -0.251995 255 255 255
0.790435 -0.079497 -0.245448 255 255 255
0.801733 -0.0716752 -0.256695 255 255 255
0.80775 -0.0696207 -0.28657 255 255 255
0.860254 -0.186927 -0.421478 255 255 255
0.863797 -0.0895777 -0.431315 255 255 255
0.86905 -0.0953482 -0.457363 255 255 255
0.859247 -0.137654 -0.415363 255 255 255
0.858462 -0.136822 -0.422631 255 255 255
0.849885 -0.0490391 -0.406467 255 255 255
0.862174 -0.0607102 -0.424158 255 255 255
0.787915 -0.0353508 -0.241094 255 255 255
0.788305 0.00968031 -0.274459 255 255 255
1.06638 -0.195087 -1.11845 255 255 255
1.09135 -0.325984 -1.05774 255 255 255
0.954314 -0.123126 -0.659705 255 255 255
0.861874 -0.053323 -0.452129 255 255 255
0.943691 -0.110134 -0.666939 255 255 255
0.859247 -0.137654 -0.415363 255 255 255
0.869863 -0.0928761 -0.449778 255 255 255
0.86014 -0.0617424 -0.421375 255 255 255
0.794564 -0.0688616 -0.253781 255 255 255
0.794956 -0.0661901 -0.266838 255 255 255
1.06593 -0.102439 -1.13991 255 255 255
1.06073 -0.00960867 -1.16343 255 255 255
0.862534 -0.0440316 -0.453049 255 255 255
0.872635 -0.00866119 -0.466059 255 255 255
0.901252 -0.157731 -0.536753 255 255 255
0.93579 -0.147087 -0.566581 255 255 255
0.853856 -0.0390522 -0.425914 255 255 255
0.855735 -0.00705008 -0.425933 255 255 255
1.0041 -0.331904 -1.15987 255 255 255
0.900537 -0.282545 -1.14589 255 255 255
0.797979 -0.115352 -0.262484 255 255 255
0.8484 -0.219705 -1.20747 255 255 255
0.831253 -0.121676 -0.322725 255 255 255
0.801281 -0.0359525 -0.279579 255 255 255
0.780232 -0.349721 -1.25768 255 255 255
0.712767 -0.212593 -0.94768 255 255 255
0.867126 0.0338065 -0.473071 255 255 255
0.94022 0.0241494 -0.654435 255 255 255
0.80054 -0.0680486 -0.279172 255 255 255
1.10722 -0.115961 -1.11885 255 255 255
1.04476 0.0406932 -1.11274 255 255 255
0.981783 -0.330893 -0.710101 255 255 255
0.946844 -0.250917 -0.665336 255 255 255
0.847701 0.044329 -0.418586 255 255 255
0.797293 -0.0203842 -0.27704 255 255 255
0.810509 -0.0195468 -0.328605 255 255 255
0.595527 0.00237022 -0.196422 255 255 255
0.791258 0.029052 -0.268433 255 255 255
1.08489 -0.0637626 -1.09434 255 255 255
1.11054 -0.216801 -1.11002 255 255 255
0.856463 -0.143369 -0.403513 255 255 255
0.843046 -0.208729 -1.1025 255 255 255
0.835656 -0.159899 -1.22776 255 255 255
1.0039 -0.125368 -1.14028 255 255 255
0.942925 -0.0499087 -1.1712 255 255 255
0.845571 -0.163565 -0.366989 255 255 255
0.864361 -0.20321 -0.424212 255 255 255
0.841295 -0.158934 -0.379886 255 255 255
0.877181 -0.190029 -0.441154 255 255 255
0.950222 -0.246577 -1.12736 255 255 255
0.801878 -0.0827185 -0.278051 255 255 255
0.979305 -0.283413 -1.14313 255 255 255
0.804229 -0.128333 -0.277453 255 255 255
0.820605 -0.137419 -0.309328 255 255 255
0.924671 -0.108893 -0.649525 255 255 255
0.808562 -0.385345 -1.3615 255 255 255
0.828059 -0.298331 -1.15769 255 255 255
0.878801 -0.145438 -0.533652 255 255 255
0.648918 -0.320347 -1.16259 255 255 255
0.949076 -0.0734455 -0.665942 255 255 255
0.843403 -0.0898078 -0.398683 255 255 255
0.83041 -0.0391642 -0.36189 255 255 255
0.820491 0.015089 -0.291804 255 255 255
0.797543 -0.0328937 -0.27705 255 255 255
0.788076 -0.017841 -0.250594 255 255 255
0.788448 0.0105177 -0.247251 255 255 255
0.789842 -0.0257965 -0.248358 255 255 255
0.970084 -0.123202 -0.719748 255 255 255
0.935677 -0.190889 -1.1197 255 255 255
1.10937 -0.210277 -1.10818 255 255 255
1.07174 -0.200149 -1.14704 255 255 255
1.04603 -0.0515602 -1.12436 255 255 255
0.931581 -0.119789 -0.566081 255 255 255
0.855143 -0.224829 -1.22752 255 255 255
0.943649 -0.255881 -1.16272 255 255 255
0.972448 -0.160471 -1.19125 255 255 255
0.895303 -0.185829 -1.1926 255 255 255
1.00867 -0.126336 -1.15323 255 255 255
0.943719 -0.107101 -1.1802 255 255 255
0.927084 -0.0020239 -1.19295 255 255 255
0.796759 -0.0611841 -0.265545 255 255 255
0.768853 -0.307683 -1.10281 255 255 255
0.795023 -0.289432 -1.27874 255 255 255
1.11922 -0.333436 -1.09743 255 255 255
0.840612 -0.184028 -0.376225 255 255 255
0.853231 -0.0936935 -0.404764 255 255 255
0.914564 -0.334686 -1.18397 255 255 255
0.802261 -0.107942 -0.300151 255 255 255
0.808939 -0.103731 -0.294505 255 255 255
0.80087 -0.0707785 -0.275583 255 255 255
0.698298 -0.371302 -1.32222 255 255 255
0.871054 -0.00772111 -0.466006 255 255 255
0.947155 -0.0206447 -0.670139 255 255 255
0.950982 -0.213507 -0.657814 255 255 255
0.932884 -0.186237 -0.605026 255 255 255
0.857084 -0.14133 -0.407508 255 255 255
0.868813 -0.111306 -0.450577 255 255 255
0.942494 0.0232205 -0.691522 255 255 255
0.937662 0.0297332 -0.657823 255 255 255
0.791497 -0.0848997 -0.237907 255 255 255
0.778676 0.0247462 -0.233902 255 255 255
0.949643 0.00661738 -1.13489 255 255 255
0.863128 0.0121075 -1.1622 255 255 255
0.964083 -0.32347 -0.660375 255 255 255
0.864061 -0.0394591 -0.432659 255 255 255
0.804679 0.0122171 -0.293612 255 255 255
0.811423 0.0183567 -0.319059 255 255 255
0.848593 0.0474894 -0.422203 255 255 255
0.785549 -0.024253 -0.246276 255 255 255
0.893739 -0.104676 -0.558285 255 255 255
0.954691 -0.122167 -0.666085 255 255 255
0.789185 -0.0838699 -0.244451 255 255 255
0.798145 -0.0875075 -0.259436 255 255 255
0.788287 -0.0721568 -0.247787 255 255 255
1.10718 -0.113301 -1.11451 255 255 255
1.05662 -0.107629 -1.12125 255 255 255
1.09659 -0.0598073 -1.09786 255 255 255
0.92328 0.0387101 -1.18535 255 255 255
1.01855 0.0495477 -0.890128 255 255 255
1.04551 0.0458658 -1.12878 255 255 255
0.584142 0.0150359 -1.09207 255 255 255
0.79033 0.0292034 -0.265887 255 255 255
0.942151 0.0193094 -0.662365 255 255 255
0.883397 0.0496049 -0.480586 255 255 255
0.853259 0.0390166 -0.434877 255 255 255
0.984267 -0.303324 -1.17062 255 255 255
0.914564 -0.334686 -1.18397 255 255 255
1.02 -0.279095 -0.84412 255 255 255
0.981533 -0.330189 -0.711412 255 255 255
0.896371 -0.337099 -1.2933 255 255 255
1.00591 -0.131346 -1.15224 255 255 255
0.943719 -0.107101 -1.1802 255 255 255
1.02731 -0.00405859 -0.866876 255 255 255
0.874329 -0.226089 -1.18175 255 255 255
0.96327 -0.152773 -1.16661 255 255 255
0.858764 -0.169732 -1.09996 255 255 255
0.796158 -0.0681201 -0.257396 255 255 255
0.826673 -0.157903 -0.319753 255 255 255
0.98333 -0.279822 -0.694758 255 255 255
0.836996 -0.115449 -0.362607 255 255 255
0.834356 -0.110495 -0.366978 255 255 255
0.838567 -0.181578 -0.372199 255 255 255
0.825367 -0.135516 -0.333887 255 255 255
0.860462 0.00711886 -0.457152 255 255 255
0.845446 -0.0412633 -0.410046 255 255 255
0.857648 -0.00853206 -0.430065 255 255 255
0.871082 -0.0583172 -0.461673 255 255 255
0.8673 -0.0622043 -0.428866 255 255 255
0.859295 -0.11738 -0.509496 255 255 255
0.908365 -0.109056 -0.568096 255 255 255
0.900911 -0.115599 -0.516465 255 255 255
0.884474 -0.0919706 -0.49156 255 255 255
1.1185 -0.276083 -1.10408 255 255 255
1.10951 -0.226211 -1.10192 255 255 255
0.775577 -0.246199 -1.21384 255 255 255
1.10664 -0.160574 -1.11387 255 255 255
0.940312 -0.0591793 -1.18869 255 255 255
0.901589 0.0019793 -1.25974 255 255 255
1.05189 -0.040697 -1.13481 255 255 255
1.10605 -0.122258 -1.13111 255 255 255
0.964686 -0.333185 -0.664178 255 255 255
1.05626 -0.0537188 -1.16154 255 255 255
0.987404 -0.027363 -1.15086 255 255 255
1.04991 -0.00851387 -1.14193 255 255 255
0.967928 -0.253496 -1.16122 255 255 255
1.01461 -0.228792 -1.15857 255 255 255
0.990159 -0.220725 -1.15615 255 255 255
0.893051 -0.133246 -0.521341 255 255 255
0.872038 -0.0922322 -0.448587 255 255 255
1.09097 0.0556136 -1.26176 255 255 255
0.912941 0.0364416 -1.11138 255 255 255
1.02424 0.0517645 -0.89564 255 255 255
1.13784 0.0569463 -1.3083 255 255 255
0.517843 -0.00171917 -0.20285 255 255 255
1.00413 -0.324671 -1.14827 255 255 255
1.11259 -0.329947 -1.08723 255 255 255
0.694535 -0.37621 -1.33395 255 255 255
0.668757 -0.344645 -1.28208 255 255 255
0.795134 -0.346346 -1.21686 255 255 255
0.780615 -0.349906 -1.23105 255 255 255
0.63086 -0.233291 -1.3064 255 255 255
0.794213 -0.137995 -1.08579 255 255 255
0.825597 -0.158791 -0.317359 255 255 255
0.951775 -0.211766 -0.664047 255 255 255
0.840019 -0.136058 -0.369506 255 255 255
0.862054 -0.142271 -0.413787 255 255 255
0.874716 -0.140043 -0.445947 255 255 255
0.861082 -0.229187 -0.438621 255 255 255
0.966755 -0.284717 -0.682747 255 255 255
0.86364 -0.185042 -0.43001 255 255 255
0.801193 -0.0253918 -0.278767 255 255 255
0.786563 0.0103888 -0.251934 255 255 255
0.854213 -0.0450562 -0.417712 255 255 255
0.853387 -0.0559587 -0.440264 255 255 255
0.861997 -0.0622251 -0.424462 255 255 255
0.961313 -0.166199 -0.687694 255 255 255
1.11473 -0.112278 -1.1269 255 255 255
1.05525 -0.147297 -1.13499 255 255 255
1.06181 -0.0936675 -1.11986 255 255 255
0.959912 -0.162009 -0.695304 255 255 255
0.935545 -0.146437 -0.569859 255 255 255
1.10889 0.0150597 -1.13047 255 255 255
1.06539 0.00129782 -1.15696 255 255 255
1.11646 -0.277326 -1.10183 255 255 255
1.09884 -0.303981 -1.13535 255 255 255
1.06472 -0.242582 -1.1334 255 255 255
0.892692 -0.101033 -0.570688 255 255 255
0.951371 -0.117766 -0.664638 255 255 255
0.978146 -0.162626 -1.26093 255 255 255
0.894738 -0.136567 -1.19242 255 255 255
0.88852 -0.081027 -1.20105 255 255 255
1.01715 -0.277313 -1.14793 255 255 255
0.970659 -0.252546 -1.17214 255 255 255
1.00799 -0.227809 -1.15013 255 255 255
1.09455 -0.218781 -1.10639 255 255 255
1.11232 -0.180049 -1.11787 255 255 255
1.03314 -0.350114 -0.777035 255 255 255
0.952345 -0.264286 -1.18205 255 255 255
0.878859 -0.225697 -1.19349 255 255 255
0.967551 -0.201342 -1.1694 255 255 255
0.85104 -0.0929952 -0.405168 255 255 255
0.86176 -0.0928332 -0.419327 255 255 255
0.938233 -0.00186868 -1.17024 255 255 255
0.884259 -0.0317391 -1.19911 255 255 255
1.00079 -0.0734286 -1.16224 255 255 255
0.979756 -0.280208 -0.732685 255 255 255
1.00678 -0.307571 -0.799233 255 255 255
1.03159 -0.312787 -0.857369 255 255 255
0.592585 -0.284849 -1.4042 255 255 255
1.13784 0.0569463 -1.3083 255 255 255
0.945283 0.0188105 -0.669603 255 255 255
0.855855 0.0501758 -0.450005 255 255 255
0.851872 0.0510684 -0.426308 255 255 255
0.977815 -0.215754 -0.721616 255 255 255
1.10895 -0.304175 -1.08892 255 255 255
0.577475 -0.36847 -1.32501 255 255 255
0.780615 -0.349906 -1.23105 255 255 255
0.888389 -0.1877 -1.18389 255 255 255
0.984554 -0.278908 -0.700236 255 255 255
0.94938 -0.0663484 -0.672607 255 255 255
0.862638 -0.0106373 -0.453594 255 255 255
0.864048 -0.0425836 -0.426346 255 255 255
0.855584 -0.00897942 -0.429991 255 255 255
0.851481 -0.0577541 -0.439395 255 255 255
0.85776 -0.0609053 -0.42406 255 255 255
0.891307 -0.109134 -0.521944 255 255 255
1.10722 -0.0344742 -1.12244 255 255 255
1.02782 0.00285817 -1.09245 255 255 255
0.980426 -0.301175 -1.17314 255 255 255
1.10747 -0.253668 -1.09259 255 255 255
1.06019 -0.242086 -1.12606 255 255 255
1.10044 -0.0822559 -1.10681 255 255 255
0.869617 -0.0982958 -0.419215 255 255 255
0.859006 -0.0892398 -0.434414 255 255 255
0.943813 -0.288854 -1.13351 255 255 255
0.966131 -0.257971 -1.21088 255 255 255
1.02489 -0.315149 -0.829464 255 255 255
1.0309 -0.0532716 -1.1124 255 255 255
0.980747 -0.0349785 -1.17422 255 255 255
1.05692 0.0120158 -1.16977 255 255 255
0.983771 -0.0725315 -1.16837 255 255 255
0.942248 -0.312961 -0.612843 255 255 255
0.982015 -0.119375 -1.26609 255 255 255
0.961877 -0.14906 -1.17723 255 255 255
0.804498 -0.070698 -0.279503 255 255 255
0.865537 -0.319982 -1.21096 255 255 255
0.746538 -0.255117 -1.06474 255 255 255
0.898904 -0.346317 -1.19896 255 255 255
0.913478 -0.329934 -1.18815 255 255 255
0.830129 -0.202255 -1.19414 255 255 255
0.989682 -0.0875102 -0.755301 255 255 255
0.646808 -0.210261 -1.1474 255 255 255
0.778797 -0.271006 -1.18408 255 255 255
