ply
format ascii 1.0
element vertex 907
property float x
property float y
property float z
property uchar red
property uchar green
property uchar blue
end_header
-0.261463 0.0242715 0.739805 255 255 255
0.377226 -0.347324 1.15781 255 255 255
0.488645 -0.318102 1.24889 255 255 255
0.503521 -0.386933 1.2533 255 255 255
0.0918508 -0.160729 1.08055 255 255 255
-0.361948 -0.336153 1.02382 255 255 255
-0.16264 -0.292525 1.09228 255 255 255
-0.125124 -0.295773 1.10411 255 255 255
-0.171153 -0.228764 1.04871 255 255 255
-0.118268 -0.0723758 1.06308 255 255 255
-0.122024 -0.0211332 1.13012 255 255 255
-0.177352 -0.18593 1.06395 255 255 255
-0.164679 -0.0653052 1.07939 255 255 255
-0.177143 -0.336639 1.05556 255 255 255
-0.135684 -0.349134 1.078 255 255 255
-0.150533 0.0257374 1.05134 255 255 255
0.387504 0.0386747 1.21117 255 255 255
0.372044 0.0361168 1.07372 255 255 255
0.480389 0.0447343 1.28282 255 255 255
0.439985 -0.151424 1.14176 255 255 255
0.36713 -0.016555 0.937399 255 255 255
0.146724 -0.106673 1.17529 255 255 255
0.105466 -0.421232 1.13103 255 255 255
0.0931352 0.0112757 1.13995 255 255 255
-0.331587 0.00522608 0.979237 255 255 255
-0.276437 0.0396857 0.746567 255 255 255
-0.113787 0.0266435 1.01482 255 255 255
0.358811 -0.323283 1.08851 255 255 255
0.441692 -0.394554 1.25291 255 255 255
-0.124748 -0.0725088 1.06401 255 255 255
0.452157 -0.172793 1.38884 255 255 255
-0.190269 0.0311174 1.10391 255 255 255
-0.168953 -0.232035 1.103 255 255 255
0.449557 -0.342305 1.14931 255 255 255
0.480565 -0.314453 1.24226 255 255 255
0.387504 0.0386747 1.21117 255 255 255
0.372044 0.0361168 1.07372 255 255 255
0.337741 -0.262635 1.08058 255 255 255
0.439309 -0.304253 1.27736 255 255 255
0.470997 -0.0927146 1.37944 255 255 255
0.515951 -0.0317125 1.65472 255 255 255
0.286286 -0.0181149 0.812147 255 255 255
0.104679 -0.102339 1.05395 255 255 255
0.142646 -0.100375 1.10474 255 255 255
-0.177143 -0.336639 1.05556 255 255 255
-0.195407 -0.357213 1.14431 255 255 255
-0.160194 -0.0205373 1.08344 255 255 255
-0.171263 -0.169482 1.07969 255 255 255
-0.256466 0.00252746 0.729797 255 255 255
-0.257704 0.0216901 0.730916 255 255 255
0.370507 -0.219575 1.12889 255 255 255
0.364167 -0.226547 1.21638 255 255 255
0.842472 0.0223395 1.27921 255 255 255
-0.308496 -0.252527 1.07592 255 255 255
0.402588 -0.242825 1.22436 255 255 255
0.446415 -0.43224 1.18433 255 255 255
0.32909 0.0324109 1.00645 255 255 255
0.161858 0.00717181 1.0392 255 255 255
-0.290425 0.00588772 0.914425 255 255 255
-0.273119 0.0395715 0.743482 255 255 255
0.138297 -0.271193 1.04023 255 255 255
0.192423 -0.284868 1.09417 255 255 255
0.178919 -0.429696 1.15621 255 255 255
0.142419 -0.360592 1.11322 255 255 255
0.467382 -0.363517 1.18019 255 255 255
0.460802 -0.300735 1.19316 255 255 255
0.350128 -0.0218448 1.07966 255 255 255
0.118073 -0.0489985 1.11209 255 255 255
0.13875 -0.221139 1.09081 255 255 255
-0.140648 -0.242314 1.10887 255 255 255
-0.122024 -0.0211332 1.13012 255 255 255
-0.136575 -0.171605 1.04374 255 255 255
-0.319655 -0.00408666 1.08246 255 255 255
-0.212918 0.0215419 1.05732 255 255 255
-0.17556 0.0291167 1.0643 255 255 255
0.139954 -0.154391 1.08239 255 255 255
-0.244839 -0.172662 0.933762 255 255 255
-0.308084 -0.0942761 1.07191 255 255 255
0.345785 -0.397818 1.11572 255 255 255
0.171082 -0.250416 1.17039 255 255 255
0.108214 -0.101191 1.03524 255 255 255
-0.204784 -0.23431 1.09071 255 255 255
-0.158368 -0.222594 1.06377 255 255 255
-0.203268 -0.337658 1.06839 255 255 255
-0.200244 -0.179265 1.08701 255 255 255
-0.178408 -0.175568 1.12071 255 255 255
-0.264273 -0.237622 0.746878 255 255 255
-0.271391 -0.226763 0.757918 255 255 255
-0.263889 0.0228025 0.740779 255 255 255
0.106786 -0.393064 1.06466 255 255 255
0.107026 -0.163577 1.08643 255 255 255
-0.174613 -0.0816151 1.0756 255 255 255
-0.165067 -0.0633152 1.07385 255 255 255
-0.180462 -0.01783 1.06491 255 255 255
-0.15466 -0.00923957 1.07447 255 255 255
0.12551 0.00844285 1.00539 255 255 255
-0.155182 0.023293 1.06622 255 255 255
-0.155182 0.023293 1.06622 255 255 255
0.701159 0.0150056 1.06722 255 255 255
-0.252149 -0.0774872 0.724464 255 255 255
-0.271617 -0.240369 0.758716 255 255 255
-0.266222 0.0396449 0.734705 255 255 255
0.184158 -0.347284 1.10426 255 255 255
0.152249 -0.17089 1.21133 255 255 255
-0.116968 -0.277645 1.05375 255 255 255
-0.343689 -0.136116 1.06221 255 255 255
-0.320849 -0.0822058 1.04673 255 255 255
0.407602 -0.148456 1.10882 255 255 255
0.130247 -0.121453 1.23329 255 255 255
-0.413246 -0.219563 1.17787 255 255 255
-0.330338 -0.192977 1.08208 255 255 255
-0.312205 -0.0426996 1.07354 255 255 255
-0.342567 -0.00358687 1.04643 255 255 255
0.165168 -0.340206 1.1149 255 255 255
0.123826 -0.288052 1.14298 255 255 255
0.15069 -0.299328 1.16777 255 255 255
-0.182605 -0.325037 1.20892 255 255 255
-0.201962 -0.236719 1.08878 255 255 255
-0.169345 -0.235751 1.04245 255 255 255
0.399999 -0.357487 1.1338 255 255 255
0.397433 -0.345867 1.17346 255 255 255
0.385953 -0.0110989 1.07624 255 255 255
0.121301 -0.0471012 1.13455 255 255 255
-0.157926 -0.221987 1.06722 255 255 255
-0.197701 -0.122351 1.07031 255 255 255
-0.349573 -0.313297 1.07147 255 255 255
-0.294474 -0.257643 0.96282 255 255 255
-0.262821 0.0224101 0.739075 255 255 255
-0.167617 -0.0610781 1.09011 255 255 255
0.156654 -0.11243 1.26201 255 255 255
0.170904 -0.104983 1.18393 255 255 255
-0.193164 -0.348258 1.12319 255 255 255
-0.159116 -0.346445 1.08206 255 255 255
0.305952 0.0263658 0.882385 255 255 255
0.382608 -0.165151 1.24975 255 255 255
0.156422 0.0244909 1.25334 255 255 255
0.163859 -0.377733 1.15149 255 255 255
0.1705 -0.236105 1.14984 255 255 255
-0.331172 -0.211966 1.08602 255 255 255
-0.306789 -0.0942451 1.05551 255 255 255
0.781116 -0.203443 1.16774 255 255 255
0.418709 -0.270104 1.07961 255 255 255
0.120894 -0.343314 1.11363 255 255 255
-0.180462 -0.01783 1.06491 255 255 255
-0.266908 -0.231299 0.748408 255 255 255
-0.393998 -0.366576 1.09253 255 255 255
0.76346 -0.485868 1.12948 255 255 255
-0.269605 0.0399038 0.739092 255 255 255
-0.173169 0.0323102 1.06826 255 255 255
0.142547 -0.277166 1.08959 255 255 255
0.189017 -0.110049 1.15602 255 255 255
0.219766 -0.250694 1.19023 255 255 255
0.110424 -0.171517 1.11178 255 255 255
-0.300004 -0.086541 1.04853 255 255 255
-0.303154 -0.195019 1.0538 255 255 255
-0.263598 -0.112395 0.741092 255 255 255
-0.141827 -0.0721148 1.06537 255 255 255
-0.126107 -0.0236032 1.06861 255 255 255
0.363899 -0.339617 1.11155 255 255 255
0.401472 -0.313666 1.25559 255 255 255
0.364313 -0.269595 1.13747 255 255 255
0.363016 -0.419237 1.15339 255 255 255
0.445584 -0.227736 1.2163 255 255 255
-0.312575 -0.206938 1.05774 255 255 255
0.40481 0.0433081 1.10615 255 255 255
0.170653 -0.0506462 1.12577 255 255 255
-0.144578 -0.240137 1.08889 255 255 255
-0.12863 0.0343763 1.05351 255 255 255
-0.355342 -0.28086 1.03439 255 255 255
-0.266087 -0.0444297 0.745368 255 255 255
0.169157 -0.417408 1.13763 255 255 255
-0.350641 -0.0391235 1.044 255 255 255
-0.357492 -0.244276 1.05454 255 255 255
-0.270493 -0.143582 0.751885 255 255 255
0.394803 -0.232135 1.26723 255 255 255
0.152387 -0.244003 1.15151 255 255 255
0.145535 -0.2279 1.13691 255 255 255
0.114447 0.0102763 1.25586 255 255 255
-0.34945 -0.195145 1.0606 255 255 255
-0.335637 -0.190469 1.08331 255 255 255
0.382354 -0.282996 1.10316 255 255 255
0.380495 0.0394813 1.163 255 255 255
0.377661 0.0436776 1.09118 255 255 255
0.176729 -0.336214 1.08207 255 255 255
0.123044 -0.0501408 1.08512 255 255 255
0.126241 -0.354454 1.1482 255 255 255
0.121667 -0.106007 1.15127 255 255 255
-0.119674 -0.276692 1.05748 255 255 255
-0.136542 0.0230765 1.03185 255 255 255
-0.191272 -0.17285 1.08661 255 255 255
-0.184858 -0.195601 1.10975 255 255 255
-0.209942 -0.240583 1.13436 255 255 255
-0.178395 -0.08279 1.07749 255 255 255
-0.29017 -0.270228 0.990553 255 255 255
-0.348954 -0.106731 1.08201 255 255 255
-0.322171 -0.0837729 1.04696 255 255 255
-0.309103 -0.0794639 0.968824 255 255 255
-0.262135 -0.0627481 0.738192 255 255 255
-0.25927 -0.170229 0.735783 255 255 255
0.44642 -0.338507 1.14757 255 255 255
-0.264131 0.0411728 0.733527 255 255 255
0.187976 -0.282495 1.11006 255 255 255
0.65435 -0.34744 1.16111 255 255 255
0.122643 -0.0538688 1.09755 255 255 255
0.185478 -0.215649 1.0943 255 255 255
-0.260827 -0.104144 0.738801 255 255 255
-0.169758 -0.0231017 1.07821 255 255 255
-0.122128 -0.00896866 1.06412 255 255 255
-0.180767 -0.123823 1.07495 255 255 255
0.809767 -0.00442553 1.16957 255 255 255
0.112061 -0.411021 1.09408 255 255 255
0.111138 -0.396978 1.09124 255 255 255
0.873667 -0.561999 1.27856 255 255 255
0.786496 -0.0745147 1.13753 255 255 255
-0.33175 -0.349083 1.07152 255 255 255
0.805495 -0.290787 1.17047 255 255 255
0.830128 -0.423352 1.21827 255 255 255
0.824331 -0.192781 1.19385 255 255 255
0.135532 -0.294087 1.12055 255 255 255
-0.19706 -0.119688 1.07653 255 255 255
-0.196812 -0.183708 1.07951 255 255 255
-0.363155 -0.144148 1.04103 255 255 255
-0.361689 -0.141012 1.06683 255 255 255
-0.335737 -0.084476 1.05233 255 255 255
-0.261328 -0.16467 0.738314 255 255 255
0.819007 -0.36973 1.19375 255 255 255
0.806321 -0.258981 1.16665 255 255 255
0.802035 -0.220331 1.16729 255 255 255
0.12463 -0.35945 1.12514 255 255 255
0.128975 -0.336508 1.10129 255 255 255
-0.309795 -0.245804 1.07071 255 255 255
-0.261607 -0.0286745 0.736705 255 255 255
-0.262095 -0.0194791 0.737591 255 255 255
0.145224 -0.23284 1.10565 255 255 255
0.828191 -0.0438621 1.19732 255 255 255
0.824356 -0.521597 1.21873 255 255 255
0.865262 -0.52298 1.26291 255 255 255
0.83812 -0.502486 1.22097 255 255 255
0.823032 -0.132135 1.19756 255 255 255
0.831313 -0.117817 1.20274 255 255 255
0.786602 0.0266643 1.14109 255 255 255
0.133715 -0.131574 1.28281 255 255 255
-0.330787 -0.248206 1.06292 255 255 255
-0.347933 -0.329942 1.03588 255 255 255
0.833945 -0.346964 1.20867 255 255 255
0.383985 -0.346857 1.12745 255 255 255
0.399471 -0.341674 1.16713 255 255 255
0.348541 -0.151638 1.12468 255 255 255
0.129141 -0.279806 1.118 255 255 255
0.154885 -0.270132 1.09787 255 255 255
-0.154128 -0.218803 1.06171 255 255 255
-0.257921 -0.182446 0.734586 255 255 255
-0.263608 -0.076431 0.74176 255 255 255
-0.262442 -0.0662538 0.738566 255 255 255
-0.26527 -0.15394 0.745405 255 255 255
-0.271278 -0.134398 0.755803 255 255 255
0.795886 -0.0489525 1.15522 255 255 255
0.160807 -0.223026 1.09504 255 255 255
-0.261748 0.00363774 0.736934 255 255 255
0.569187 0.0066439 0.854511 255 255 255
0.158333 0.0139351 1.11498 255 255 255
0.11242 0.0179391 1.153 255 255 255
-0.207069 -0.246549 1.11709 255 255 255
-0.304684 -0.0393144 1.04333 255 255 255
-0.303322 -0.00395431 1.03465 255 255 255
-0.341017 -0.0943948 1.0296 255 255 255
-0.344783 0.00969181 1.01475 255 255 255
-0.266378 -0.206522 0.748404 255 255 255
0.759688 -0.0541379 1.10446 255 255 255
0.166956 -0.424577 1.11393 255 255 255
0.287212 -0.000777874 1.09095 255 255 255
-0.264131 0.0411728 0.733527 255 255 255
-0.170455 0.0335357 1.06128 255 255 255
0.180015 -0.336226 1.09171 255 255 255
0.179433 -0.275092 1.08549 255 255 255
0.382815 -0.15137 1.24306 255 255 255
0.167096 -0.215282 1.08991 255 255 255
0.111809 -0.167993 1.07876 255 255 255
-0.163331 -0.283977 1.07118 255 255 255
-0.122766 -0.278885 1.06871 255 255 255
-0.342731 -0.0906238 1.06599 255 255 255
-0.337498 -0.187776 1.07976 255 255 255
-0.197873 -0.130435 1.08694 255 255 255
-0.139658 -0.116556 1.06587 255 255 255
-0.14697 -0.0661597 1.11371 255 255 255
-0.365877 -0.142994 1.06991 255 255 255
-0.305015 -0.240193 1.0594 255 255 255
-0.313832 -0.196603 1.08089 255 255 255
-0.361564 -0.00363003 1.08465 255 255 255
-0.307807 -0.0973011 1.05078 255 255 255
-0.309526 -0.0865572 1.06287 255 255 255
-0.352326 -0.314681 1.07229 255 255 255
0.807804 -0.147331 1.16816 255 255 255
0.414722 -0.220743 1.13488 255 255 255
0.829066 -0.494526 1.20836 255 255 255
0.84208 -0.305283 1.2216 255 255 255
0.133496 -0.288767 1.09417 255 255 255
0.131066 -0.375096 1.17168 255 255 255
0.462708 -0.291737 1.22396 255 255 255
-0.260672 0.0191368 0.734188 255 255 255
0.826046 -0.350081 1.18491 255 255 255
0.771304 0.00329144 1.11621 255 255 255
0.738878 0.023692 1.0616 255 255 255
0.78895 -0.100311 1.15506 255 255 255
-0.360663 -0.0486508 1.07272 255 255 255
-0.349761 -0.0362792 1.0424 255 255 255
-0.381866 -0.345859 1.07668 255 255 255
-0.261424 -0.0435652 0.73612 255 255 255
0.826351 -0.412957 1.20171 255 255 255
0.826053 -0.402215 1.21024 255 255 255
0.361927 -0.218576 1.13455 255 255 255
0.361804 -0.202618 1.12967 255 255 255
0.11245 0.00369548 1.10572 255 255 255
0.11242 0.0179391 1.153 255 255 255
-0.372104 -0.294375 1.0807 255 255 255
-0.262835 -0.0124468 0.738244 255 255 255
-0.255791 -0.0041108 0.727764 255 255 255
0.772738 -0.131385 1.13261 255 255 255
0.794609 -0.0400105 1.15377 255 255 255
0.138593 -0.346658 1.10976 255 255 255
0.147615 -0.35061 1.12745 255 255 255
-0.186223 -0.23097 1.04783 255 255 255
0.806785 -0.268416 1.15392 255 255 255
0.816137 -0.371571 1.16192 255 255 255
0.820535 -0.364112 1.17662 255 255 255
0.802713 -0.00499921 1.16069 255 255 255
0.821392 -0.190319 1.19063 255 255 255
0.796518 -0.172739 1.16622 255 255 255
0.80834 -0.432858 1.18778 255 255 255
0.848795 -0.436091 1.22316 255 255 255
0.838291 -0.467198 1.22887 255 255 255
0.844602 -0.460188 1.22974 255 255 255
0.825004 -0.380888 1.21085 255 255 255
0.843425 -0.381481 1.2253 255 255 255
0.77317 -0.0637169 1.11844 255 255 255
0.798819 -0.119106 1.16959 255 255 255
0.824821 -0.115811 1.19519 255 255 255
0.873667 -0.561999 1.27856 255 255 255
0.802773 -0.0809285 1.17658 255 255 255
0.789287 -0.0748741 1.14119 255 255 255
0.835944 -0.350018 1.2219 255 255 255
0.846567 -0.348033 1.22707 255 255 255
0.363252 0.0329043 1.09476 255 255 255
0.349813 0.0429702 1.07031 255 255 255
0.373539 -0.272784 1.12834 255 255 255
0.373826 -0.26647 1.13677 255 255 255
0.368684 -0.281659 1.12634 255 255 255
0.122233 -0.100308 1.11797 255 255 255
-0.198788 -0.188144 1.09443 255 255 255
-0.368177 -0.352189 1.05128 255 255 255
-0.264416 -0.167478 0.743475 255 255 255
-0.263066 -0.138938 0.741593 255 255 255
-0.280685 -0.23936 0.770824 255 255 255
-0.272458 -0.231166 0.757669 255 255 255
0.400415 0.0447983 1.10075 255 255 255
-0.164528 -0.217464 1.00024 255 255 255
-0.195297 -0.342685 1.06047 255 255 255
-0.261826 -0.0587675 0.737972 255 255 255
-0.214759 -0.356433 1.14217 255 255 255
-0.38355 -0.335673 1.13393 255 255 255
0.128172 -0.42818 1.12515 255 255 255
-0.118506 0.0264427 1.04855 255 255 255
-0.260672 0.0191368 0.734188 255 255 255
0.791781 -0.119505 1.12931 255 255 255
0.780539 -0.0308784 1.14239 255 255 255
-0.134722 -0.219237 1.04945 255 255 255
-0.328132 0.00141117 1.06569 255 255 255
0.778153 -0.458585 1.10396 255 255 255
0.826164 -0.200667 1.18134 255 255 255
0.139276 -0.378525 1.16859 255 255 255
0.136797 -0.350641 1.14306 255 255 255
-0.159112 -0.0151205 1.06582 255 255 255
-0.329226 -0.0912699 1.07176 255 255 255
-0.309183 -0.00389643 1.04875 255 255 255
-0.377331 -0.299374 1.09741 255 255 255
-0.385776 -0.25106 1.11991 255 255 255
-0.361084 -0.249124 1.08584 255 255 255
-0.272103 -0.220776 0.756217 255 255 255
-0.262338 -0.197466 0.740707 255 255 255
-0.260988 0.00361208 0.734269 255 255 255
0.807475 -0.285903 1.15829 255 255 255
0.785408 -0.109382 1.14163 255 255 255
0.826046 -0.350081 1.18491 255 255 255
0.143159 -0.283775 1.11317 255 255 255
0.844602 -0.460188 1.22974 255 255 255
0.807004 -0.356397 1.18295 255 255 255
0.180654 -0.282225 1.1147 255 255 255
-0.339293 -0.0348658 1.02639 255 255 255
-0.36154 0.0127991 1.04811 255 255 255
-0.350107 0.0146205 1.04311 255 255 255
-0.372901 -0.357541 1.06207 255 255 255
-0.198443 -0.122342 1.11369 255 255 255
-0.180415 -0.166554 1.06088 255 255 255
-0.182836 -0.223415 1.06954 255 255 255
